ply
format ascii 1.0
element vertex 1224
property float x
property float y
property float z
property uint8 red
property uint8 green
property uint8 blue
end_header
0.935232 2.631048 -1.619173 34 34 34
9.290123 23.311264 6.489789 68 67 72
11.759762 18.383247 8.423422 132 130 125
0.530283 2.337397 -1.388137 137 137 139
1.595079 2.780209 -1.672694 81 80 84
1.043243 6.111220 -0.628503 212 208 207
35.440277 58.136238 33.501801 163 162 157
22.112194 34.484802 16.430120 67 69 68
11.596552 21.503099 7.364576 72 73 75
12.217721 21.503172 6.521156 114 113 111
5.834996 4.299164 0.013703 187 186 181
6.934862 4.654280 -0.050737 90 90 92
6.898160 5.007149 -0.409484 43 43 45
6.982720 5.169609 -0.580267 43 43 43
7.703032 4.857506 -0.598981 45 47 46
8.187270 4.957232 -0.765877 86 89 88
1.734546 3.149035 -3.267004 124 124 124
8.719060 4.788941 -1.393638 156 154 157
3.351262 1.468722 -1.895498 186 182 184
3.041231 1.517893 -2.131816 92 88 87
3.303279 1.249725 -1.854634 93 94 99
6.092160 3.338388 -2.428921 68 78 70
2.980371 1.364528 -2.389579 157 156 154
0.625949 2.330701 -1.343389 0 0 0
3.197179 1.555405 -2.458452 147 143 140
3.064595 1.112932 -2.332007 103 82 47
3.020764 0.297518 -1.671663 75 76 71
3.043341 1.107711 -2.360212 100 77 43
6.976415 4.590785 0.009024 43 42 48
7.027547 5.548926 -1.194179 73 73 73
5.600650 4.097525 -2.043191 192 197 190
4.840037 3.560057 -2.619100 143 148 142
3.438310 1.447282 -1.901009 181 180 181
4.916394 3.805827 -2.758633 192 188 187
2.991386 1.118266 -2.363492 164 156 148
2.986551 1.112194 -2.379904 157 155 152
13.014473 22.262091 10.599130 65 67 65
2.172419 0.636390 -1.651656 77 72 76
6.375216 3.390596 -2.533051 120 125 119
7.146935 4.867362 -1.169979 35 35 37
3.024392 1.560811 -1.729337 79 78 83
3.055934 1.517599 -1.768574 51 54 53
1.923392 2.860538 -3.325460 132 134 134
8.840635 4.970150 -1.191255 154 155 150
3.337459 1.375386 -1.824457 83 81 85
3.410070 1.433169 -1.854798 85 85 85
3.010391 1.458091 -2.264453 69 71 70
1.115328 2.661153 -1.568365 68 69 71
18.532497 23.857117 7.625472 51 49 53
1.543313 2.558937 -1.581566 194 190 189
6.286159 4.005734 -2.257764 135 135 135
6.252038 3.512082 -2.954251 129 138 130
15.137037 25.838675 12.990188 35 39 43
1.053420 2.764310 -1.264532 188 189 184
8.428757 4.792950 -1.582812 74 76 75
1.333978 3.032005 -1.596913 196 192 191
5.394499 4.077780 -2.232424 138 149 133
6.470146 3.719187 -2.176017 48 48 53
11.310713 20.523260 7.157889 28 28 28
17.449266 22.019739 13.857534 142 142 142
18.483685 21.832674 11.362655 80 80 78
11.832600 22.207016 6.543844 53 52 51
12.179357 23.289129 6.678218 47 46 46
12.535162 23.819469 6.713376 81 80 82
-17.285896 74.426056 -18.042139 203 204 209
1.373099 2.540651 -2.017022 204 203 201
6.949659 5.307306 -0.729854 46 45 48
7.468813 4.853865 -0.419164 48 50 47
6.952708 5.630090 -1.067109 80 80 80
2.875404 1.526584 -1.749271 193 192 194
6.605378 3.896382 -1.711071 49 48 52
8.566419 4.301399 -1.365539 85 89 90
1.154658 2.392633 -1.227742 197 196 194
1.167715 2.258153 -1.255644 127 125 129
-2.395100 3.888780 -0.370296 0 0 0
7.339576 4.302373 0.238461 100 100 102
7.558609 4.579313 -0.360786 101 101 106
5.138802 4.000448 -2.209036 156 160 155
2.812653 1.300060 -1.765439 77 78 83
3.352549 1.472088 -1.895822 194 191 189
6.023798 3.292722 -2.346615 102 111 108
7.082635 5.297275 -0.837206 48 48 50
8.093076 4.797200 -0.811786 39 46 52
2.827516 1.322793 -1.709198 62 61 64
3.049711 1.555276 -1.752139 84 88 91
5.241508 4.164261 -2.195150 155 157 153
6.895113 3.752049 -1.747023 81 79 82
6.315611 3.340127 -2.432498 71 75 75
3.014455 1.372737 -2.316093 67 69 68
10.395863 23.393959 10.672746 76 76 78
13.250959 20.292057 6.843310 37 42 45
1.277371 2.790829 -1.610573 190 189 187
6.861404 4.846357 -1.306683 51 52 54
7.053590 3.947188 -1.545687 174 173 169
10.858591 21.822298 7.559426 100 99 95
8.791448 4.674169 -1.278802 161 161 160
8.723239 4.607448 -1.271732 161 161 160
1.480683 2.846647 -1.795259 67 66 71
6.604195 7.827369 -0.749733 174 166 164
7.079373 3.644466 -1.815746 199 196 192
3.809414 2.320696 -2.012723 204 203 201
7.534194 16.008375 7.621619 56 55 61
15.375472 22.908636 14.240555 168 167 168
9.398483 34.507496 12.896784 137 135 136
17.612156 21.405895 13.456203 142 143 144
11.116732 27.718786 9.458356 117 117 117
13.963964 21.635937 9.849781 45 49 48
11.041897 21.392504 7.163298 51 53 51
2.654713 7.543190 -0.074233 222 223 218
6.899474 4.539592 0.045708 104 104 102
7.085908 5.242292 -0.596249 79 81 78
7.333884 4.675472 -0.295172 107 107 107
7.007281 5.265349 -0.783023 68 68 70
8.138259 4.223149 -0.052984 49 49 47
7.691568 5.005101 -0.596651 93 93 93
8.011848 5.024201 -1.018245 40 41 43
7.242637 4.191816 -0.974723 40 41 43
5.396852 4.207668 -2.001185 203 206 199
5.565848 4.327494 -2.054838 209 210 208
2.787670 1.177009 -1.851824 190 188 176
1.750581 3.280876 -3.578072 51 55 56
4.903838 3.649972 -2.513909 158 159 154
2.850141 2.110802 -2.898823 169 166 161
8.269989 3.689729 -2.006305 127 125 126
8.269989 3.689729 -2.006305 127 125 126
10.186826 24.113335 12.153231 97 97 99
41.278233 65.011101 37.657421 175 171 170
14.403710 27.343105 12.688833 124 123 121
77.516190 98.147568 61.417606 102 107 110
17.113832 20.100113 12.041527 168 167 165
12.398656 20.458712 7.348522 41 44 46
1.103075 2.196410 -1.233803 148 148 149
7.462234 3.773642 -0.676834 160 161 160
8.573686 4.652331 -1.478967 118 119 114
3.014032 1.463419 -2.207051 105 103 108
6.086878 3.160334 -2.451854 88 100 90
7.995305 4.522279 -0.393047 115 113 99
10.657005 7.336866 -1.144213 105 105 102
9.443667 5.831262 -1.773974 83 87 84
3.117144 1.752979 -2.256156 87 88 89
8.212895 3.876399 -2.128751 144 140 140
9.330427 19.814884 9.648934 69 70 74
8.125782 4.652896 -0.607343 98 102 101
9.234626 5.256552 -0.908673 112 111 110
3.053790 1.502968 -1.760577 54 53 57
6.785778 3.944997 -1.570613 57 56 56
6.364624 3.257404 -2.389392 82 84 81
8.183983 3.637613 -2.029314 136 134 135
8.183983 3.637613 -2.029314 136 134 135
3.463159 1.263195 -2.334087 178 178 176
18.145338 21.435583 13.602209 104 108 110
8.085188 4.164788 -0.108238 58 58 60
8.249205 4.611105 -0.448719 52 57 60
8.722479 4.311269 -1.009165 159 158 156
1.753913 3.303137 -3.535805 128 131 134
3.003781 1.170939 -2.351780 162 161 159
11.777009 21.929955 10.197604 119 116 114
9.351528 5.286856 -0.773768 169 168 164
6.800231 4.143812 -1.666604 94 92 93
8.642437 4.653365 -1.555383 141 141 139
8.614736 4.099329 -1.830467 87 89 88
5.991985 3.441115 -2.679016 124 137 128
7.521715 4.247835 0.245371 107 107 106
7.606987 4.267460 0.100094 79 79 81
8.778335 4.040155 -1.848204 165 166 166
8.734392 4.006663 -1.850047 165 166 166
7.777486 8.510926 0.352445 192 193 187
7.693676 4.359471 -0.077580 98 99 97
8.593000 4.465526 -1.747270 97 99 97
19.249115 27.967976 12.600527 116 117 112
8.839805 5.380373 -0.808532 46 47 50
3.438972 1.337221 -2.299904 43 44 48
2.840499 1.644435 -1.901871 51 51 53
8.629634 4.241960 -1.644648 89 90 92
7.027966 20.255617 4.532246 177 172 169
22.791277 32.798431 14.961002 55 55 55
33.171062 54.661331 31.610954 174 173 169
5.944157 1.942881 -1.092666 90 91 93
15.093043 19.590487 11.008054 98 100 97
9.753016 21.734617 6.732724 103 101 102
11.423452 26.439533 8.241720 103 101 102
11.315877 22.085548 7.230066 102 105 104
12.305789 21.275013 7.602754 44 43 47
12.538605 21.230558 7.566876 45 45 47
10.798048 21.330864 5.795549 69 69 70
20.141102 19.535450 10.023931 112 110 111
14.067357 12.853521 4.953998 84 85 87
1.074338 1.727803 -1.169140 79 78 83
1.068565 2.291948 -1.230711 134 132 133
1.031320 2.233738 -1.807484 52 48 36
1.021119 2.259295 -1.838182 139 128 112
7.034378 4.629890 -0.032157 99 99 99
1.315567 2.061556 -1.975046 199 196 191
6.737344 3.616659 -1.757447 67 63 61
5.814453 3.543581 -2.232317 105 117 106
6.289485 3.409907 -2.422560 71 75 71
1.177414 2.710107 -1.564226 102 101 106
7.883870 8.911998 0.485235 198 195 190
5.997862 5.450558 0.114559 0 0 0
8.044527 4.255149 0.025229 59 59 60
8.019280 4.153679 -0.033761 98 99 100
7.303045 4.828675 -0.599140 48 49 49
7.994514 4.436324 -0.424142 55 57 54
8.714566 4.716515 -1.440977 54 55 52
8.513337 4.680287 -1.576163 103 103 104
6.208746 3.278002 -2.450749 112 120 110
2.980225 1.172494 -2.376709 90 85 85
7.343861 4.517598 -0.091338 101 102 104
7.918136 4.049838 0.256833 50 50 52
3.322548 1.211021 -2.057063 43 45 45
13.245372 22.345169 10.584044 67 69 69
6.945896 4.559886 0.075404 112 112 112
7.389198 7.026048 -0.899567 148 146 148
9.727080 4.884989 -0.267300 160 158 159
8.429472 3.578037 -2.303124 89 109 98
8.415322 3.569010 -2.302021 89 109 98
17.653231 22.970884 8.565650 117 116 114
1.090438 2.439348 -1.631309 60 64 65
8.487512 4.043736 -1.980597 141 140 138
8.211708 3.650398 -2.328220 177 178 179
3.802136 1.583502 -2.264479 82 83 85
3.180967 1.254456 -2.257271 142 136 136
1.158407 2.448431 -1.914497 61 64 71
8.882394 5.029400 -1.020493 153 150 144
3.913898 1.663043 -2.258304 59 62 67
14.899435 22.290337 9.762403 42 43 45
7.911115 4.095579 0.158818 107 107 107
7.871793 4.486717 -0.264702 63 65 64
7.777380 7.486837 0.118619 205 204 200
5.133548 4.156071 -2.187235 213 212 210
8.913751 3.849020 -1.823795 92 93 95
1.261357 2.819865 -1.576030 200 196 194
0.996866 2.255955 -1.748571 44 43 39
7.828248 4.836653 -0.489540 48 50 47
6.642992 3.669751 -1.770585 65 66 71
8.743096 3.899428 -2.034468 176 174 175
0.886155 2.663018 -1.147162 203 199 198
14.653319 15.496139 6.539386 121 120 118
8.489863 4.272264 -0.667125 164 164 162
4.634146 3.810715 -1.694903 215 211 210
4.634146 3.810715 -1.694903 215 211 210
1.116963 2.677017 -1.572744 80 80 85
2.782403 1.484524 -1.698468 94 93 97
6.465954 15.770492 -0.457637 217 212 209
17.453077 19.840807 11.568621 158 154 153
22.011608 21.035006 12.974223 138 140 139
19.127934 23.918600 9.382263 86 84 83
21.037096 24.486866 7.749317 48 52 49
19.839195 22.812233 7.179974 49 50 52
13.486496 13.140733 2.537490 87 89 88
7.220638 4.708592 -0.602816 57 57 57
7.823433 4.830332 -0.709889 76 80 81
0.767423 2.246505 -1.797556 108 90 68
3.084891 2.848809 -2.645580 163 165 164
-1.650283 3.540965 -2.902210 127 125 126
-1.492590 3.729007 -3.062186 129 124 130
10.095372 25.100573 12.282002 124 113 110
9.306954 20.073984 9.994618 133 131 134
20.710886 16.216236 9.837008 126 129 127
7.424265 7.550271 -0.873097 193 192 190
7.865339 4.552989 -0.576811 62 62 60
7.854232 4.715954 -0.664825 59 63 64
-3.057560 4.401039 -2.611662 129 128 126
0.891607 2.166126 -1.809624 98 83 69
-3.158050 0.751432 -1.243971 129 129 131
6.896990 4.444919 0.312950 32 32 32
10.930274 26.470207 11.465175 104 104 105
11.860833 25.358252 8.263401 49 47 48
7.861574 4.501890 -0.427524 74 78 55
7.874594 4.501604 -0.422352 74 78 55
18.325539 20.961393 10.802543 107 109 108
10.846119 24.336327 7.349580 109 103 103
8.220529 23.253435 2.408292 203 202 200
1.155954 2.357726 -1.809409 46 46 46
-3.318686 4.187648 -1.066974 178 179 172
7.100799 5.041284 -0.801507 35 35 37
7.643627 4.743355 -0.473111 34 38 37
28.622622 23.766813 11.301370 104 103 101
-3.204707 4.428701 -0.708028 187 186 181
7.466618 4.935434 -0.548276 72 74 73
11.449175 22.597492 7.384512 88 87 85
18.102579 23.759354 7.469003 110 109 110
14.088708 21.170269 5.192292 96 96 93
7.463236 8.979030 -0.544018 197 196 195
26.330376 25.137350 21.082018 57 58 62
-3.347866 4.177170 -0.029539 127 127 129
-3.392895 4.591262 -0.182824 70 72 69
20.513536 19.857336 9.902423 103 103 101
21.161680 19.237410 10.067179 44 43 48
18.326649 14.864254 4.122024 45 46 48
1.628206 2.886331 -3.012748 0 0 0
7.095399 7.077067 -0.860900 140 139 137
7.055118 5.231020 -0.762114 56 57 59
1.015986 2.367871 -1.851785 101 86 55
22.299217 29.164644 15.142840 51 52 55
9.559991 16.770050 7.770478 42 42 44
-3.561171 4.224167 -0.691512 83 78 74
-3.405150 4.424255 -0.700767 87 88 84
21.120886 23.626547 7.582758 116 115 113
-3.506469 4.331075 -0.817868 179 177 181
0.766520 2.916874 -1.529615 66 67 69
-3.685616 4.286593 -0.395159 64 66 65
21.432497 19.575783 9.927867 44 45 47
14.791837 12.868357 1.179950 106 106 103
14.598423 12.395887 1.229306 40 40 38
1.234863 2.198782 -1.366584 166 165 161
1.037254 2.177051 -1.455007 171 169 157
0.679440 2.219589 -1.904260 112 107 111
21.119968 37.798492 17.596657 0 0 0
17.495810 21.628265 10.222575 97 99 98
0.446491 2.402200 -1.346249 119 120 116
23.402006 20.284023 16.488056 65 64 69
11.098207 22.931561 10.869761 111 108 103
11.612045 9.909195 0.751062 105 101 98
-3.154429 5.010039 -1.853657 131 131 131
14.057113 12.766483 1.543109 111 109 107
15.838500 13.498074 8.036348 141 142 138
0.724929 2.788310 -1.297333 201 200 198
0.989603 3.267902 -1.481117 67 69 72
26.220873 24.500574 20.109409 65 65 67
-2.977551 5.172963 -1.921891 151 149 150
2.416714 3.874050 -1.038570 201 200 198
9.375102 21.834389 13.175406 99 93 92
13.455550 13.399004 2.553145 46 46 47
11.359915 24.865063 7.958868 56 55 56
7.842327 28.810118 14.257254 73 73 74
7.846588 28.821768 14.265608 72 71 73
-2.841430 4.054031 -0.452167 197 196 191
-0.312543 3.855131 -2.900817 168 164 163
21.156954 23.138897 7.078319 53 54 58
-3.006477 4.654396 -0.555194 60 61 67
11.690542 21.047287 6.982274 77 76 76
18.523697 29.069361 22.916012 83 87 90
9.725310 24.175837 12.900383 132 130 133
8.281843 18.530842 13.037867 69 71 75
14.047406 23.640772 7.375562 106 102 101
14.612224 23.253950 7.316253 96 95 91
10.217125 26.484884 9.991778 92 93 93
1.130119 2.302066 -1.275844 81 80 87
9.391525 20.161100 11.808262 103 103 100
11.021676 27.251554 10.521745 115 114 110
11.890952 19.963707 9.301476 106 111 107
-3.550206 4.182108 -0.687328 84 82 76
18.103336 22.461254 9.356601 75 74 72
14.048582 22.452175 7.239998 40 40 39
33.597527 28.532570 13.301799 108 107 101
-3.400957 4.310061 -1.309659 66 68 80
-2.715862 4.184350 -1.161875 189 185 182
12.137434 11.423266 1.689087 103 98 100
14.857743 13.379162 1.257422 47 46 44
0.619449 2.322468 -1.213230 111 110 115
0.833619 2.181565 -1.847488 114 97 67
26.307281 25.695038 20.936237 136 137 136
11.353558 17.659657 8.136147 98 99 101
-3.527210 4.235533 -0.644493 90 82 61
22.589172 22.496111 8.404800 101 101 101
7.756025 7.590666 -0.669748 128 129 131
7.142209 4.895623 -0.435053 27 29 26
6.857961 4.738613 -0.428890 27 29 26
5.923019 3.692459 -2.193690 65 78 69
-1.068918 11.508103 0.136637 0 0 0
7.015272 4.829220 -1.447685 114 114 114
5.810306 3.941097 -2.038304 156 161 157
-1.069342 3.595540 -3.191620 128 126 131
16.059858 31.883221 15.697583 116 117 112
22.547390 20.187990 12.449368 46 50 58
30.117281 24.594349 11.865294 91 91 89
0.636902 2.249164 -1.963069 102 99 95
8.359229 18.486219 10.731227 123 119 116
15.512769 13.843328 6.139978 97 94 89
13.841986 15.794020 0.736371 126 122 121
7.004734 7.628808 -0.853992 157 156 152
-1.540428 4.539141 -3.425361 132 130 131
13.653951 28.625607 13.747050 49 49 51
-3.328800 5.222049 -1.951976 48 48 48
0.880887 2.338601 -1.666257 46 47 49
12.497839 14.965165 -0.066495 57 57 57
-3.605241 4.343462 -0.607693 91 78 52
1.099500 2.268307 -1.199893 189 188 186
5.399763 4.171700 -2.100187 131 137 133
0.611008 4.511212 -3.417768 115 111 110
-3.199666 4.612112 -0.290801 185 187 184
9.285235 11.373854 0.098245 65 65 63
1.344156 2.294321 -1.705370 176 172 171
13.531373 15.238161 2.886276 122 118 115
-1.816187 9.090560 -6.132097 96 92 93
8.865479 27.051308 6.682551 162 157 154
4.899985 4.321214 -1.807011 179 175 174
0.707463 2.482835 -1.902578 44 44 43
-3.442592 4.553435 -0.741367 151 151 145
18.499413 18.594130 6.002411 66 66 66
-2.246105 8.653940 -6.760509 28 27 28
9.192345 19.707067 8.570754 45 45 46
14.225170 22.636440 14.134963 162 163 159
14.031377 21.741091 12.787838 173 170 165
-3.983176 4.378475 0.057897 135 136 130
14.779919 19.218382 11.060693 132 133 127
15.168791 23.820024 7.505733 104 106 105
15.015048 23.007463 7.332895 105 101 99
20.165247 17.843204 10.040241 48 48 49
18.146603 23.008482 7.601950 117 119 120
-3.489359 4.336408 -0.784722 191 190 188
-2.644698 4.637114 -2.361499 186 186 189
6.961673 5.130513 -0.533830 58 60 59
7.045424 5.233176 -0.760714 59 61 61
7.334868 4.730024 -0.358646 79 83 84
7.470819 5.371456 -1.093996 64 66 65
10.592863 23.934223 13.835443 61 59 61
-0.460503 8.072406 0.648004 228 224 221
7.137681 5.240736 -0.851554 33 35 34
33.806931 28.273258 13.014720 115 114 112
-3.254202 4.305287 -1.090349 92 93 88
-3.254202 4.305287 -1.090349 92 93 88
7.046571 4.765772 -0.754606 39 40 42
-1.092128 4.951596 -3.995555 121 121 121
-3.889254 4.403915 -0.460588 82 77 75
31.547167 26.330343 10.988726 40 42 43
-3.486652 4.215693 -1.190770 55 55 57
18.011917 17.407799 4.010140 102 102 100
10.412529 23.916578 13.423174 100 98 99
5.358054 26.069447 9.972895 0 0 0
-2.928199 4.691133 -0.425489 200 200 192
1.303845 7.452883 0.251491 183 178 174
0.528274 2.537832 -1.351956 121 123 120
12.548862 14.672153 0.363143 59 59 64
7.036441 5.021739 -0.792708 33 34 36
9.468596 21.508787 9.991846 55 55 55
14.028483 23.715488 15.143763 110 115 116
12.812229 11.814933 0.696236 51 53 56
23.088463 33.184711 16.461927 136 137 131
15.211988 19.850672 11.251624 74 75 75
18.871477 21.125324 8.822824 117 115 113
-0.247812 3.900573 -2.799427 96 91 89
18.463091 22.971788 14.549902 82 83 85
16.014748 33.722298 15.624934 56 54 55
8.304086 27.690599 10.327750 142 141 139
9.809680 27.993416 9.888462 88 88 84
10.024090 14.934645 8.682701 71 73 70
-3.849732 4.178707 0.010636 62 62 59
-3.427313 4.233033 0.003116 135 130 134
20.489668 19.153091 10.801493 61 61 59
-3.588236 4.259927 -0.563270 114 103 83
7.302924 4.878326 -0.591655 50 52 49
7.287869 4.951416 -1.399437 52 52 52
0.648559 2.301667 -1.244049 143 142 146
0.624471 2.237235 -1.240093 73 72 78
5.248028 4.153268 -2.093458 139 139 139
4.430195 3.146587 -1.551360 128 126 129
17.804314 20.745584 13.132397 106 107 109
-3.920319 4.518361 0.116179 145 144 140
-3.886523 4.308535 0.090422 199 198 196
-2.324850 8.898027 1.163178 215 214 212
-3.543653 2.857907 0.081435 77 76 81
-3.813223 4.314183 -0.148764 163 162 160
21.886801 20.541143 12.632472 146 146 148
20.346043 20.078173 10.404114 105 105 105
-2.031569 8.950991 -6.190976 131 130 128
1.114036 2.580902 -1.314059 138 137 142
0.515331 2.395951 -1.431306 44 45 49
-3.236733 4.742728 -0.147750 197 198 202
-3.551556 4.198659 -0.692186 97 90 80
11.786866 11.443624 2.062109 51 50 55
0.994737 3.375228 -1.376067 98 97 105
0.625617 2.504592 -1.289259 161 161 161
-3.828915 4.369542 -0.150305 145 144 141
-3.331925 4.239512 -0.014135 136 136 138
24.060389 19.830441 9.621172 106 108 106
0.435814 2.507641 -1.355760 46 46 51
19.992895 18.491003 9.878311 89 89 87
-2.924399 4.685089 -0.423456 198 199 191
-3.182634 3.980991 -1.475341 141 140 141
7.900414 4.372038 -1.441959 94 96 93
-0.282657 3.849937 -2.887364 169 168 165
28.960091 26.153641 21.177383 50 55 58
-3.281676 5.193837 -0.044723 103 104 112
7.838636 4.787184 -0.708356 70 73 66
7.777432 25.945993 10.262399 142 140 141
19.810186 17.598164 9.463384 0 0 0
10.574541 9.204233 0.698031 122 116 116
-2.711237 4.627738 -2.269302 68 67 75
0.554754 2.430761 -1.310279 136 134 135
0.789017 2.616609 -1.197197 195 195 193
-3.037346 5.547068 -0.126076 210 209 207
-2.668009 4.501861 -1.828853 190 186 185
5.979065 20.328575 4.980699 173 168 165
17.766630 18.488855 9.223439 117 117 117
27.351801 24.084242 11.464350 120 117 115
13.669463 20.968964 5.557600 122 121 117
12.186554 20.415627 6.766899 35 36 41
-3.396844 4.434906 -0.877535 196 193 188
16.404961 27.272276 14.048866 121 124 124
21.425877 27.926247 14.291978 119 118 120
18.327726 18.879250 10.637037 50 52 51
14.347846 12.570856 1.662811 92 93 89
-2.688279 4.695782 -2.464259 73 75 79
0.984572 2.313112 -1.266280 131 133 140
1.074873 2.273077 -1.718874 174 175 170
6.765388 3.795731 -1.660082 143 145 140
4.979180 3.959931 -2.204096 170 171 170
0.700850 2.249956 -1.897750 159 148 143
5.260506 26.614195 9.992049 158 157 153
-3.390008 4.263448 -0.022013 83 83 85
17.241095 36.087223 17.325981 130 130 125
11.637909 24.054222 11.668325 51 50 48
20.344070 20.313267 12.504042 141 140 138
19.629723 25.598162 9.210119 106 105 103
20.921944 22.498423 7.127775 117 114 109
7.086262 4.868729 -0.426533 31 31 31
8.365960 4.799170 -1.355021 58 62 61
-1.049735 3.621509 -3.221465 128 126 127
8.842793 28.173328 9.842158 129 127 126
7.697281 8.761730 0.463612 168 167 163
7.045236 5.111681 -0.710376 30 31 33
0.442872 2.445967 -1.385843 39 40 43
-2.371768 5.820341 -4.588022 118 119 114
1.415503 2.470827 -2.042429 157 158 153
13.857139 12.313730 5.229804 27 30 31
-1.421832 9.170024 -5.863356 130 128 129
0.337330 2.997123 -1.744512 93 93 95
0.724821 2.591248 -1.949908 51 50 55
6.955313 3.838184 -1.709922 140 142 139
14.574116 24.515417 12.493911 119 121 120
0.513246 2.332565 -1.382705 87 91 94
9.504723 11.064754 0.203338 54 55 57
0.172397 3.736626 -2.854693 79 71 72
6.401810 3.483804 -1.773016 136 141 135
0.854106 2.239964 -1.831567 99 78 49
0.954329 2.200240 -1.332738 109 110 112
0.474384 2.378400 -1.287146 125 124 124
7.484653 4.848245 -0.489639 73 75 74
-2.176816 6.181838 -4.537519 84 82 82
12.512416 21.597857 12.517323 120 120 118
10.338085 20.883684 10.102171 130 131 126
19.979731 25.663885 13.141557 71 71 71
17.954332 21.294275 11.070182 107 106 104
-3.646547 4.516392 0.017030 71 73 72
21.918934 17.534897 4.811979 84 84 84
19.922071 15.713202 4.249777 72 72 74
-3.186492 4.720528 -1.096733 171 173 172
7.760671 6.847038 0.503053 41 47 43
7.612936 7.416846 -0.382861 56 61 71
6.974146 5.070662 -0.914288 52 58 58
6.933715 4.921345 -0.941207 53 56 55
8.803028 19.318287 9.676785 140 141 143
18.465250 19.894871 11.209713 57 57 55
20.786993 21.552441 5.910711 145 146 142
7.022590 7.492851 -0.978153 160 158 159
7.180237 4.881357 -0.893863 29 33 34
4.990467 3.901844 -2.316986 173 169 167
9.733793 20.989269 10.044660 117 119 115
7.967410 7.042739 0.611853 100 100 98
-2.938157 5.199429 -0.503276 0 0 0
-2.904639 4.644813 -0.638287 188 190 187
23.381886 18.208179 11.826077 60 64 65
-1.788294 5.961236 0.620767 218 214 211
29.477888 25.962999 22.187349 71 70 75
14.509600 12.589318 1.006603 121 119 111
0.741664 2.785951 -1.953058 175 171 172
-3.085997 3.656963 -1.530263 45 50 51
-3.436074 4.387162 -0.787112 192 188 187
7.841719 10.497272 2.093998 133 129 127
8.901111 27.802504 9.758776 120 121 117
-2.947485 4.604689 -0.640015 84 86 87
12.064058 20.943869 3.878262 89 86 84
5.547769 25.241972 10.320380 82 83 84
15.815536 26.362919 13.376409 81 80 75
-2.975580 4.225483 -0.245922 202 200 205
22.533741 21.466202 14.638350 79 81 81
7.718705 5.682739 -3.180973 177 173 172
9.490166 23.510895 11.677625 81 79 78
9.587164 24.872286 11.986579 95 76 78
12.855654 20.302631 11.638700 72 72 74
10.987965 23.390373 10.752563 120 116 115
27.517622 16.104805 15.441927 127 127 127
9.679432 21.869724 8.776957 70 70 69
21.696959 22.093134 7.512866 110 108 109
7.026019 4.122021 0.377296 26 32 32
7.002193 4.711043 -0.202480 93 93 93
6.822340 4.736432 -0.351676 76 76 74
5.649439 4.100663 -2.067734 140 145 141
0.528441 2.210642 -1.324558 39 41 40
7.807263 7.174851 0.246971 122 121 117
5.475404 5.555863 -0.837629 69 70 73
7.487519 4.669739 -0.875100 58 59 55
8.446532 4.428210 -1.535224 61 62 64
8.446532 4.428210 -1.535224 61 62 64
8.451352 3.923752 -2.044968 166 168 163
0.877807 2.354534 -1.242495 0 0 0
5.097679 3.923480 -2.297821 129 130 125
6.312295 3.225472 -2.373848 71 76 70
0.778116 2.577583 -1.554674 39 39 43
27.166485 18.704407 14.695265 125 125 125
0.977601 2.442286 -1.314976 148 149 147
23.851545 18.598038 12.073225 63 64 66
5.303196 4.244431 -2.008908 139 141 138
11.440163 24.059465 12.343870 48 50 47
24.719332 13.442199 12.509811 112 116 115
14.318967 12.296727 1.334932 43 41 44
6.911775 4.686512 0.075809 39 41 40
7.098301 3.897376 -1.628257 154 154 145
0.176892 1.598819 -1.267543 164 163 162
29.609293 20.384413 16.842001 48 48 50
29.176548 16.815866 15.423512 54 55 57
17.774319 9.051252 3.206444 24 25 30
7.801042 4.659224 -0.533531 36 41 37
19.448282 10.665948 4.132819 79 79 81
22.138742 21.046310 13.423909 93 94 98
10.424489 21.269344 4.905358 132 128 125
17.433516 22.293049 9.091619 54 54 54
23.507748 22.766779 8.846765 79 79 77
28.259806 18.055981 14.343409 120 123 122
11.944331 19.563358 6.891376 107 107 105
-3.562701 4.113056 0.032181 137 133 135
5.562185 4.335128 1.634896 32 32 34
17.468323 8.892471 3.886333 66 67 69
13.589900 12.668970 2.171849 43 44 46
13.844050 12.134553 1.436526 46 46 46
13.526472 14.163209 1.361984 70 66 69
14.227993 11.045399 1.077747 41 41 41
12.567555 15.058994 0.409575 138 134 133
7.765487 4.638452 -0.595795 38 39 41
0.592505 2.334569 -1.223106 118 119 120
-1.660533 1.395705 -1.088999 80 81 80
-2.680099 4.804496 -2.203931 181 180 186
0.715783 2.284648 -1.814921 56 50 63
0.743203 2.181003 -1.860691 117 101 75
-2.813019 4.335835 -2.552117 186 184 190
-1.477546 3.457496 -2.907112 180 178 179
14.299702 11.959341 1.281117 109 108 104
13.610970 11.275658 1.243239 41 41 42
6.954089 4.450320 0.227236 82 86 85
0.614156 2.484087 -1.262760 166 167 167
1.197494 2.156748 -1.339448 56 60 59
-2.336841 6.702878 -4.033944 114 112 113
12.793854 10.300394 7.149370 72 74 72
0.499733 2.504345 -1.284136 135 134 130
7.246471 5.051193 -0.632254 62 67 68
7.520222 4.531957 -0.957579 125 123 118
0.302206 2.855636 -1.780580 77 79 81
23.428732 12.874362 5.488295 33 32 36
-3.293442 4.144198 -0.139186 87 86 94
9.222334 10.372141 0.613458 59 60 64
24.976801 12.665843 7.091732 99 101 98
12.453815 10.203362 1.136531 39 40 44
12.457331 14.925589 -0.013237 76 74 79
8.510327 4.661929 -1.258790 135 134 132
-2.801753 4.633227 -2.900119 135 133 134
0.816153 1.783921 -2.005832 33 43 44
-2.942710 4.274230 -1.675807 170 169 167
1.081326 2.144597 -1.511356 179 180 175
0.956740 2.127368 -1.953950 52 52 54
0.776055 2.448418 -2.255582 176 175 171
0.551742 2.461572 -2.434148 44 45 47
19.504498 10.693683 4.150818 81 81 79
14.061131 16.571316 2.003886 155 150 147
-3.330956 5.117254 -1.730789 148 147 145
1.305612 2.245246 -1.773675 180 179 174
0.337490 2.644207 -2.196998 174 172 173
11.144242 21.540190 7.320979 76 75 76
13.968443 15.015068 0.924715 132 132 124
-3.308816 4.480004 -0.794131 202 201 197
14.279656 30.796198 14.159742 112 111 110
35.133953 28.831669 13.543470 69 70 64
16.736513 8.630664 3.866046 30 32 31
-0.153813 8.034794 0.578616 220 216 215
0.330028 5.344665 -0.106524 0 0 0
8.712914 4.473770 -1.560230 115 115 115
6.948027 3.654218 -1.573311 158 158 156
5.940991 3.792813 -2.036801 57 62 60
0.611679 2.250901 -1.338094 84 84 86
4.089588 2.172557 -2.300241 118 129 121
7.311881 7.293068 -0.296370 160 161 159
7.131827 3.472319 -0.833080 58 61 68
3.956940 3.374532 -1.872976 180 182 177
0.906130 2.373319 -1.231521 139 140 142
7.379230 7.107401 -0.969531 135 135 135
5.372854 4.133668 -2.021972 145 147 142
0.995070 3.418974 -1.489307 95 93 94
6.944342 3.810760 -1.420163 76 80 79
0.608285 2.400446 -1.242392 111 111 112
5.368986 4.149774 -2.101308 143 145 140
17.518845 14.700135 8.696487 149 148 147
19.240215 15.943113 9.433469 149 148 147
5.345843 7.756594 -0.540368 142 136 136
0.558380 2.440964 -1.320414 133 131 132
17.264473 20.644213 11.655240 84 86 84
6.499721 24.516577 9.318455 131 131 130
7.420278 4.749024 -0.586062 73 77 76
0.330727 2.938617 -1.636349 99 99 106
19.115713 30.232134 17.671888 0 0 0
16.001604 22.979469 13.446820 171 170 167
19.872299 25.627018 13.096868 73 73 76
19.147760 19.662880 11.421306 165 164 159
22.248222 20.278328 12.449612 145 149 150
-3.560096 6.089184 -0.045482 132 130 132
22.278481 20.364216 10.095266 116 117 119
8.670973 8.966002 4.689270 0 0 0
19.533062 22.826557 7.410760 118 120 119
-3.300594 4.184311 -0.089392 204 205 209
-3.642019 4.320876 -0.630309 113 106 92
12.787937 12.563908 2.666964 44 44 44
12.355586 12.125501 2.371421 49 51 50
14.300315 14.615586 1.009678 62 62 61
-2.892386 3.872942 -1.333871 192 191 189
0.985658 2.354060 -1.247533 112 110 111
1.050216 2.217038 -1.234783 172 172 175
18.078415 21.418133 10.388057 116 115 113
-3.847305 4.314582 0.112808 137 136 134
22.076254 19.752304 9.942668 50 51 52
21.600983 20.259607 5.591449 87 85 84
21.781616 20.370790 5.635946 87 85 84
-3.707272 4.229406 -0.616814 56 53 52
14.963307 13.168928 1.095284 49 49 47
15.299478 13.267443 0.739366 61 60 60
15.435914 13.368088 0.748035 61 60 60
-3.493028 4.148370 -1.201130 49 53 56
7.099646 4.835733 -0.497622 74 76 75
7.083399 4.702602 -1.503432 52 53 58
0.990481 3.426059 -1.487867 83 81 86
-2.212568 8.478637 -6.408892 91 90 86
21.497274 21.328363 7.797245 74 72 73
-3.900200 4.445220 -0.422670 191 187 178
13.687132 12.392202 5.258076 59 59 59
-3.301633 4.612571 -2.587663 103 101 98
-3.828457 4.403066 -0.152069 156 155 151
21.159817 20.657206 4.939830 114 114 112
0.443471 2.393632 -1.346099 113 115 112
5.967883 3.644547 -2.327906 63 78 72
22.843925 18.955383 8.839521 40 41 45
19.820456 18.514589 5.078835 79 75 74
-3.500987 4.251201 -0.788814 189 189 185
8.264756 7.350188 0.522840 113 114 107
-4.094382 5.024044 -0.292011 65 64 69
-2.640466 4.346059 -2.542854 176 172 171
-3.125494 4.202121 -1.052662 198 194 193
5.573683 4.821355 -1.928603 188 187 185
-2.386312 8.897344 1.149293 204 200 200
20.953251 19.026157 10.297233 63 64 67
15.786152 12.729227 7.654829 42 43 43
12.640649 15.239616 0.111787 66 70 71
-3.401372 4.107809 -0.104600 62 61 67
22.656248 33.373360 19.056993 126 127 124
-2.390267 8.905287 1.156745 219 215 212
-3.779212 4.502685 0.090120 135 133 133
-3.671484 5.430243 -0.011414 169 167 168
-3.896313 4.459577 -0.428260 170 168 157
-3.658758 4.303436 -0.506114 59 45 34
-0.233405 22.108353 -3.682801 210 213 212
-3.403795 4.378684 -1.231833 88 92 94
-3.510511 4.181984 -1.364436 99 99 98
13.975120 12.859968 1.139422 128 126 127
0.714996 2.264686 -1.234183 133 133 133
19.609663 25.694048 16.297400 103 106 105
12.804087 20.201973 6.418754 104 104 102
-3.785917 3.694654 -0.930961 45 46 48
-3.513519 4.113291 -1.453907 90 91 93
7.763620 6.907051 0.553728 107 108 107
7.703075 7.337334 -1.162986 147 148 145
-3.320063 5.518946 -3.175765 70 69 62
16.803061 34.753387 17.273052 148 144 141
16.225555 32.951603 16.119360 142 141 139
-3.920241 4.453785 0.105438 149 145 144
-3.641766 3.970092 -0.951250 98 99 99
-3.431709 4.462841 -1.269933 111 112 114
-3.470605 4.119403 -1.204646 106 104 107
11.167455 24.976023 11.415332 120 119 114
15.615534 32.903469 15.133048 55 57 61
15.083651 32.038574 14.679116 55 57 61
14.992448 32.931847 14.495449 72 72 74
11.527498 27.538963 10.680270 71 71 73
-3.577361 4.106040 -0.883984 77 77 86
0.685126 2.692721 -1.330203 62 66 69
0.478025 2.501208 -1.327302 122 120 121
22.604385 30.988914 15.052722 51 50 55
10.909937 24.549042 7.835502 119 115 114
-4.104385 5.086808 -0.189816 83 87 87
14.381539 23.696781 7.196849 48 48 48
-3.613123 4.038613 -1.410937 77 77 77
5.544867 26.502642 9.390984 114 116 115
13.427079 22.213884 11.162225 43 44 46
-3.265420 4.333347 -0.093374 207 207 203
-3.749312 3.671509 -0.891058 50 50 52
-3.445076 5.251720 -2.995169 48 50 55
-2.113503 8.884925 -6.210494 126 124 125
8.487926 9.874428 0.377901 57 55 59
-3.145044 4.029384 -1.588443 69 69 78
-3.970861 4.810669 -0.162584 171 166 162
-3.900596 4.333995 -0.679661 63 65 60
-3.792685 3.563090 -0.981468 38 39 41
-0.192962 3.834331 -2.751732 86 83 81
7.889256 8.870507 -0.922103 0 0 0
18.011276 19.825712 11.866022 161 160 158
18.312023 18.236750 6.149907 64 64 64
-3.280236 4.161256 -1.329597 155 154 152
6.904429 9.254035 0.181761 119 115 112
-3.444833 4.883427 -2.274386 28 32 34
10.400132 22.535452 9.160094 38 37 38
-2.901201 4.630439 -0.467425 124 123 127
-2.901793 4.638629 -0.474822 124 124 126
5.966487 26.856300 8.835186 30 29 29
-3.097623 4.454013 -2.459762 32 33 34
13.035581 20.896677 11.333030 44 46 46
-2.722330 4.370733 -2.912845 108 102 104
25.764141 21.302044 13.039867 63 64 68
37.284096 30.579700 15.021732 117 115 116
13.194273 13.318767 2.438125 120 120 118
-3.197336 4.984186 -0.374263 196 195 201
17.256889 10.465233 3.515059 83 86 87
14.217411 16.227449 1.362965 148 145 144
1.411974 2.176976 -1.330858 0 0 0
-3.448439 0.665851 0.595240 71 72 74
7.640505 9.494783 -0.910807 171 170 168
-3.461502 3.975799 -0.791545 169 168 170
-3.445992 4.747101 -2.186450 68 68 70
0.599727 2.494261 -1.204589 182 179 180
8.265939 3.478034 -2.373862 92 102 97
0.548040 14.301929 -9.613187 166 166 164
9.985441 25.353252 9.377643 77 75 76
24.509539 21.908255 12.282365 87 87 86
-3.818846 3.965596 -0.719166 204 254 222
7.466398 4.164713 -0.391938 41 42 38
7.583535 4.307729 -1.371176 104 105 102
6.003999 3.709231 -2.222764 79 89 81
1.209252 2.161973 -1.346174 55 61 53
26.007343 35.280270 16.499416 67 66 71
25.229460 34.261581 16.005655 67 66 71
-3.824912 4.116676 0.116623 131 127 124
7.910724 4.174704 -0.325392 137 138 131
5.909083 3.481768 -2.207826 44 50 46
20.986273 21.191086 7.836277 116 114 115
-3.744312 3.698957 -0.988935 37 41 42
8.072199 4.443867 -0.456420 50 50 51
1.113675 2.227463 -1.398716 59 59 57
12.043819 21.653502 6.533081 113 112 110
16.877209 10.478499 3.761169 30 34 33
17.230888 10.334050 3.561373 47 52 56
7.070789 4.920467 -0.483692 50 50 50
2.065029 2.369764 -0.212055 145 144 140
10.009791 26.349478 9.113662 153 151 149
39.481121 27.361261 23.267088 134 134 134
21.850950 16.374420 4.385087 51 52 47
23.354099 17.319664 4.606716 51 52 47
-3.404656 4.272871 -1.087771 157 155 158
10.255308 7.774630 1.441652 158 154 145
9.244662 4.820194 -0.778284 153 152 148
1.013610 2.879415 -1.525442 51 52 56
22.819056 16.578669 10.594458 37 38 42
-3.521130 4.143169 -0.944698 160 159 155
-3.563943 4.622355 0.136461 206 205 203
0.774264 2.906561 -1.641977 39 38 43
0.689619 2.826172 -1.655888 39 38 43
0.483344 4.119144 -3.060019 168 163 168
13.512979 10.391818 2.920619 73 75 75
-3.866500 4.515455 -0.022186 60 64 67
10.684539 41.966694 23.134264 84 75 75
12.265670 41.113613 22.977209 79 70 67
8.745913 19.949753 10.660313 119 119 119
8.763235 19.977770 10.686840 119 119 119
15.218752 19.994455 11.188223 57 58 62
19.477968 25.220959 12.904336 71 71 73
15.704130 32.668980 15.383734 129 127 127
27.419891 43.230404 20.813570 50 51 51
6.518955 25.405401 10.260668 59 63 67
8.002961 28.579094 10.124986 126 128 123
8.208642 27.929697 9.886500 137 133 131
7.219339 4.181794 -0.950460 142 143 143
2.829639 4.875084 2.373212 40 41 43
20.680992 21.440491 5.854656 145 147 146
8.042771 4.623725 -0.699967 46 48 49
9.948643 4.958153 -1.076132 140 140 140
9.699523 4.760557 -1.231691 141 138 135
10.654558 25.669436 10.551951 75 73 76
17.009268 10.222007 3.500338 50 51 50
7.456384 4.080163 0.225859 107 108 110
9.063779 4.709571 -1.040290 138 138 138
22.234919 18.901529 8.840413 106 102 101
13.880572 12.606459 5.299867 61 62 64
10.209503 10.091769 0.683132 76 76 76
12.948357 21.851299 10.610359 49 49 51
14.787637 25.560040 12.752460 0 0 0
7.808143 9.780466 -0.284661 122 118 119
0.375699 2.856100 -1.836198 171 168 159
11.104164 24.501215 13.149104 59 58 60
28.372128 13.809139 7.155838 35 36 38
18.903502 13.320846 9.655424 43 42 48
6.359976 4.355523 0.336699 34 35 37
12.632236 15.907825 0.765893 151 147 146
0.465518 3.069013 -1.672458 182 178 176
8.361654 6.245085 1.460691 37 38 40
12.844180 16.579088 0.708465 153 148 146
23.555887 21.123138 9.601289 0 0 0
10.879524 24.596014 13.022724 62 60 61
16.805620 33.663490 16.257393 51 47 50
12.031694 20.991697 4.047899 126 123 119
13.488794 13.148088 2.574498 93 92 94
6.090930 14.081799 8.381692 0 0 0
8.419834 7.395202 -0.581925 49 50 52
9.992536 21.032740 11.756007 59 63 64
9.455173 21.331699 11.127302 61 61 63
7.785846 7.152415 0.260047 105 104 102
12.622721 14.752892 0.147252 131 127 126
16.958897 34.642792 16.374966 128 128 128
6.951153 4.369923 0.524968 56 58 57
7.778626 4.561632 -0.496054 41 41 42
20.745079 27.439810 17.718801 110 110 112
12.674617 40.901249 22.843761 120 111 112
18.951853 22.894794 11.224670 111 111 111
7.559744 4.608552 -1.034138 42 43 43
7.639275 4.363765 -1.215238 126 125 121
24.170071 17.263893 12.290435 79 81 80
8.447643 6.974669 1.107080 153 150 145
-1.648685 9.145467 1.173506 176 170 170
0.495453 2.880182 -1.902176 167 166 164
7.135423 4.628059 -0.133495 79 79 81
7.344690 5.978245 -0.321460 41 41 43
9.246896 23.300209 6.135289 115 115 112
11.073372 21.279758 6.111630 41 44 45
10.288929 22.983534 9.876092 48 49 52
7.522920 10.233270 -0.356662 211 207 206
8.726618 5.835773 -2.431095 180 179 177
9.079123 46.189674 26.239725 137 136 134
11.017059 26.711168 9.707230 66 65 66
22.521114 24.893160 10.150607 109 109 107
6.178951 25.838734 10.321566 79 77 88
9.883709 25.569445 10.988420 109 108 108
10.012062 22.295338 5.024768 124 121 119
24.262373 17.035030 13.309258 136 134 130
1.927645 2.249332 0.529079 124 125 125
21.906712 20.049805 10.051885 51 51 52
16.285593 10.154830 3.471084 87 87 87
13.400811 40.465862 22.902132 156 157 156
31.945473 26.247372 11.346238 98 97 95
17.593872 11.400385 3.300922 85 85 85
19.380852 35.745312 17.270380 138 137 133
14.692024 12.758126 1.706801 81 79 81
7.059229 4.825059 -1.301069 106 110 111
8.336864 5.078129 -1.754234 120 122 122
0.287405 2.989516 -1.727872 62 63 68
10.619052 31.464565 4.336348 205 205 204
0.796237 1.843732 -1.972663 0 0 0
9.169751 28.041527 16.202042 188 186 186
9.004663 33.277561 16.187801 153 151 148
9.792954 4.915250 -1.067586 137 136 135
11.847878 22.181931 7.453427 50 48 51
-3.846002 4.272226 -0.510723 127 108 93
-4.087855 3.030622 -0.855825 192 191 194
31.376293 27.078720 12.190266 58 56 59
12.258136 28.077854 12.019544 82 80 81
7.128610 5.695676 -1.130153 67 69 68
-0.161067 3.208884 -3.161956 45 54 53
25.562996 15.318851 14.135839 70 70 80
8.593392 18.474016 13.117690 44 51 57
9.878468 28.449730 17.039181 181 183 180
9.768393 21.113047 9.602226 104 104 105
13.414497 19.325851 7.473575 47 47 49
7.243672 4.838071 -0.409141 78 80 79
21.253391 17.830042 3.083087 47 46 52
-3.886506 4.282800 -0.544257 168 170 164
-3.778655 4.066218 -0.522931 111 84 54
10.765702 25.503578 14.726403 89 88 90
11.191708 24.715944 12.366437 141 139 137
-3.846211 3.952395 -0.712114 72 121 66
26.148106 15.584827 13.774716 60 59 66
6.992548 4.648973 0.357657 35 36 38
0.656109 3.186465 -1.731419 174 172 173
-3.544852 4.327749 -0.693913 56 60 63
7.800325 26.766869 12.246872 141 143 142
-3.779013 4.519182 0.051558 57 57 60
18.988461 13.551943 9.092020 37 38 42
11.493428 41.516171 22.852783 99 68 76
-3.313693 4.251622 -0.308405 205 201 200
-3.365532 4.166615 -0.308419 205 201 200
-3.863354 4.356483 -0.735729 52 53 55
11.017689 25.617739 17.372831 107 107 109
-0.362571 3.364623 -3.223505 164 162 163
-0.927456 3.632676 -2.887264 188 186 187
-4.133614 4.423800 -0.721043 209 206 205
26.108253 18.397264 13.873176 81 82 87
14.240687 12.011514 6.923850 137 138 142
34.781097 27.944921 13.095063 66 66 66
33.678345 28.219776 13.266705 74 72 73
7.357070 4.240632 0.216868 45 47 46
7.375724 3.382482 -0.394006 44 46 43
14.824786 16.467392 1.611227 142 141 137
-3.769319 4.379192 -0.489202 48 45 44
-3.831827 3.939920 -0.719081 57 112 70
-3.864113 3.937800 -0.709139 68 100 75
-2.129662 3.481166 -2.624540 130 128 133
25.224380 18.077446 13.369726 40 41 46
17.797974 8.841297 4.510009 48 49 49
18.131359 8.856861 4.460029 87 89 88
18.276585 8.903948 4.493330 87 89 88
13.364530 40.914856 22.936165 72 72 72
-3.978340 4.214788 0.108981 153 152 148
-2.085574 3.924475 -2.824699 175 171 172
9.057642 18.698692 13.096457 94 95 97
8.051097 4.441669 -0.461139 46 45 40
7.559826 3.948344 -1.111148 87 88 83
7.944095 4.689958 -0.919458 135 136 131
5.537040 26.397146 9.005036 0 0 0
0.938702 2.795097 -1.467864 47 53 50
24.797604 12.598367 7.058828 103 102 103
7.767406 3.967219 0.061802 42 46 47
13.436115 5.049109 -0.059666 144 143 141
28.781891 19.953098 5.991973 55 55 57
-3.426995 4.159021 -0.234335 196 196 197
-4.046318 3.624667 -1.071619 60 60 60
-3.348495 4.085221 -0.191077 199 199 197
-4.088537 4.655094 -1.002351 181 180 175
8.298130 4.702849 -1.177398 42 45 44
-0.089944 3.442123 -3.091486 156 153 148
-4.131596 4.384735 -1.086831 105 104 103
-2.637718 4.561457 -2.417508 169 167 168
9.654472 21.889362 9.761505 48 52 56
8.857677 4.454884 -1.278628 139 137 140
-3.669511 5.006352 -0.098298 208 204 201
10.554711 4.099179 -0.330474 26 30 33
11.622297 4.289656 -0.367194 26 30 33
8.907551 4.521199 -0.962472 121 120 118
8.471701 4.467064 -0.983202 121 120 118
3.017215 3.577321 -1.547421 173 173 168
-3.518176 4.639886 -0.309223 40 40 42
21.249918 21.746222 6.935556 71 70 71
8.743425 32.995617 16.815990 146 141 138
9.826689 21.235426 9.553781 125 122 122
17.237717 33.979229 16.979849 116 116 112
1.057645 3.927958 -4.286852 128 126 127
8.433852 3.092615 0.129531 34 37 36
24.214754 12.952625 5.675808 76 76 74
10.956244 30.047617 17.486042 181 180 179
-3.905674 4.240699 0.084820 163 161 162
-2.646263 4.084898 -0.602661 212 210 213
-3.150889 7.811809 0.203929 218 214 213
0.377966 3.747074 -4.005669 46 47 49
7.885676 5.075868 -1.310382 43 43 45
7.247939 4.659978 -1.742112 123 126 128
-3.932054 4.308776 0.096385 221 219 220
-3.908685 4.354003 0.066555 135 133 134
-3.887371 4.055274 -0.654798 67 73 69
21.440367 8.328808 3.362840 79 82 89
30.735626 14.756505 6.978071 79 79 79
19.505701 25.389774 12.688389 71 71 71
12.570494 40.908184 22.453836 102 97 93
8.605440 16.970903 7.800678 129 127 130
16.854071 12.407266 3.274756 84 83 88
7.970807 4.513712 -0.425609 80 81 76
8.306556 4.214896 -1.339283 94 94 94
0.129409 3.891419 -4.171177 75 84 81
10.946296 4.490297 -0.742842 115 117 106
7.453368 4.864846 -0.516680 74 75 77
-3.687055 4.410701 -0.377063 65 65 67
-4.146396 4.954858 -0.324836 90 88 84
-4.090811 3.545034 -1.019541 41 40 37
13.089373 21.552311 10.157668 129 129 127
-3.630956 4.870917 -0.159048 65 64 62
-3.936955 4.325800 -0.873069 87 87 86
9.878757 22.489717 13.633046 89 86 80
8.152864 7.361911 0.329682 100 98 100
7.974295 7.257995 0.347095 100 98 100
-0.525915 3.472649 -3.521709 37 42 38
12.404979 9.223900 2.192183 84 84 84
9.913520 4.574446 -0.385367 35 37 40
9.897815 4.706420 -0.712820 123 123 120
-3.216944 4.502489 -0.669245 202 199 194
1.357479 3.525111 -2.753897 157 155 156
1.357479 3.525111 -2.753897 157 155 156
-4.043633 4.400586 -1.024705 52 51 56
-4.094681 3.571605 -1.114308 60 60 61
-4.092714 4.534997 -1.035160 68 68 73
2.972410 3.562546 -1.541975 171 170 168
-4.025155 4.992391 -0.286385 57 56 61
-4.025155 4.992391 -0.286385 57 56 61
8.838177 26.070475 11.105411 150 148 149
-0.222135 3.547065 -2.819314 52 52 52
9.079261 19.719790 11.143748 41 43 47
-4.160441 4.364194 -0.708353 203 202 200
-0.713499 3.955444 -3.153712 194 193 191
11.490817 23.212347 7.217534 117 115 112
11.076831 20.084312 13.746704 101 102 106
8.263938 3.044786 0.085747 118 120 118
10.613036 24.137865 13.431422 105 105 105
13.483793 41.027699 23.891499 134 127 116
20.103367 19.695190 9.876389 102 100 101
12.251527 39.319431 22.024258 132 126 129
6.236014 25.097956 11.688514 116 121 117
10.979099 27.210356 9.248009 114 114 111
-4.106513 4.587778 -1.048721 121 121 122
-4.120588 3.470709 -1.456549 122 120 123
4.691159 7.570633 -8.243420 40 40 36
3.300339 6.801221 -7.245622 92 92 90
-4.037024 2.759484 -2.116334 36 36 34
11.519622 20.508345 10.236827 89 89 89
11.274491 22.174019 7.911769 51 51 53
8.556156 3.961026 -1.838556 165 165 163
14.835050 43.480618 23.691074 74 67 75
-3.889367 4.381423 0.122048 221 220 218
-3.925125 4.354204 -0.579634 166 164 165
-4.261772 3.418672 -1.376809 52 50 51
10.139922 4.475613 -0.907922 57 58 63
11.777618 24.282221 8.376456 73 73 74
-3.949460 4.095172 -0.029115 92 91 87
3.469729 6.768194 -7.438861 86 84 78
7.708127 23.241949 13.676201 178 176 177
-3.306402 4.081374 -0.087828 162 159 154
0.564531 1.886482 -2.137468 0 0 0
-4.121931 4.626708 -1.337797 109 109 107
3.684731 7.044320 -7.645885 34 34 39
-4.188810 3.434381 -1.380121 62 60 63
17.532728 11.564201 3.512777 33 35 35
-4.156438 3.384676 -1.409999 159 157 158
-4.156438 3.384676 -1.409999 159 157 158
24.632267 12.869278 5.576912 85 85 85
14.970715 16.216808 1.562111 126 126 128
-3.930481 3.315938 -1.311852 207 206 204
7.107643 4.757033 0.369690 37 38 42
-3.944697 4.454293 -0.915906 210 206 205
-4.004148 3.405804 -1.354472 54 54 54
-4.222600 3.525377 -1.383284 42 42 44
-4.017443 5.065234 -1.563807 177 173 172
8.309604 28.319777 8.263054 168 163 160
-3.853684 3.391517 -1.142449 221 217 216
0.513848 3.832054 -3.145262 62 64 63
-0.333049 3.375028 -3.226579 175 171 170
29.632238 24.563656 11.494598 77 76 75
7.039357 5.232455 -0.758414 60 60 61
13.567267 13.638758 2.732665 85 85 84
10.411010 23.192305 12.633394 57 58 56
-4.009268 4.911037 -0.160291 188 183 180
-3.950849 4.317564 -0.008809 149 149 146
9.795398 24.890862 12.003363 105 75 77
17.943365 20.813206 10.925990 97 97 99
5.737644 25.516365 9.926757 113 119 121
5.880360 26.166384 9.579788 125 131 127
7.898999 7.159753 0.201527 51 52 55
12.408280 14.528386 -0.166114 140 137 138
-2.520700 4.962327 -0.444707 198 198 201
-3.107586 3.211096 -0.327364 95 89 89
15.272404 22.932390 14.212270 159 157 161
12.410745 18.071774 7.292075 82 84 83
8.269786 4.481063 -0.355694 67 68 64
1.042580 2.821216 -1.566963 159 159 161
1.042580 2.821216 -1.566963 159 159 161
-2.986286 4.587214 -0.456129 94 93 96
17.713068 21.562965 11.383124 73 71 74
10.432784 26.902117 15.728558 99 99 99
17.107895 22.343161 8.640556 114 112 113
21.764038 17.628996 9.728552 54 54 56
29.196299 13.156919 6.804079 39 41 40
12.306144 11.372178 4.283196 55 55 55
8.219036 6.880905 1.095947 155 154 150
24.000950 19.654659 8.694315 39 40 42
6.103306 4.276852 -1.995349 169 169 167
0.627875 2.821619 -1.938792 165 164 162
0.366849 2.909137 -1.740538 46 47 51
13.193862 39.743275 22.274178 79 80 89
20.483473 27.739319 16.766977 173 171 168
34.916931 29.258350 13.080059 121 119 120
18.569117 23.506908 8.419375 127 128 123
7.416682 5.551518 1.559550 65 66 68
11.605554 23.159536 7.372342 65 64 62
11.979770 23.592834 7.534676 65 64 62
8.186588 3.986641 0.125366 39 39 39
6.725839 4.973243 -0.548781 53 55 55
0.449020 3.007146 -1.678045 174 178 181
14.300983 41.582218 22.883993 148 144 148
19.621510 11.531989 4.525785 83 83 81
17.265110 11.708500 2.849958 94 96 95
-2.943945 4.583333 -0.453010 106 105 110
17.147139 20.133650 12.392677 162 161 161
11.278684 4.760434 -0.568595 48 48 55
1.143695 2.814892 -1.555317 134 139 133
8.035209 4.053074 0.302882 50 49 55
35.722904 9.216566 8.950934 78 80 79
7.767099 3.593117 -0.706636 80 82 84
38.802994 63.044331 29.892151 0 0 0
12.155398 21.678391 5.275311 104 102 103
-3.247279 4.145792 -0.101150 216 215 211
24.128561 17.238628 12.276777 83 84 86
1.810043 2.870846 -1.642516 137 148 132
4.413228 3.278475 -1.775053 54 57 59
8.220074 7.445129 -0.527056 62 60 70
21.870312 20.724489 4.837849 106 104 103
13.736765 19.894798 7.263742 67 67 66
7.025881 4.741453 -0.292997 86 87 88
16.919054 23.598320 7.171338 115 111 110
17.123703 10.578959 3.807859 40 41 43
9.961122 22.587297 12.955784 95 94 95
10.578503 29.830540 17.530054 160 158 159
8.556617 3.249109 -0.003666 44 45 47
8.223915 27.891878 14.656207 122 121 119
7.456593 3.484596 -0.899540 70 72 71
8.760521 3.637163 -1.139147 63 64 68
6.603549 26.488995 11.309255 76 78 77
8.306478 7.677055 0.183358 119 118 116
-3.620512 4.807714 -0.122217 89 90 93
-2.998411 4.484600 -0.528943 90 91 93
-3.807065 4.173474 -0.539041 135 118 84
0.324118 4.168186 -3.008051 180 179 177
16.786930 21.105350 13.035736 164 163 158
7.061911 3.962368 -1.549366 99 101 100
8.772139 3.568394 -2.157536 114 114 116
7.869028 5.005956 -1.507761 72 73 77
-3.224700 4.110972 -0.185877 224 220 220
-4.037785 4.920146 -0.185685 208 207 205
-4.079496 3.627511 -1.041006 51 51 51
16.854288 12.395016 3.452410 35 36 40
-3.890913 4.331544 -0.569580 124 120 112
-3.904299 4.311307 -0.563504 124 120 112
-0.139698 3.745243 -3.067707 175 176 168
8.256992 3.952945 0.212183 57 61 64
16.256750 22.577526 10.453830 70 70 72
-4.201120 4.795417 -0.176398 126 124 125
-4.201120 4.795417 -0.176398 126 124 125
-4.080556 3.618219 -1.013833 106 104 104
-3.812641 5.437929 -1.830061 124 123 121
24.402191 18.290686 11.548890 57 57 65
6.959055 25.646454 13.558330 126 123 122
12.100339 4.840292 -1.027368 74 74 76
-3.751238 4.616367 -0.240362 48 48 48
12.300486 11.369277 4.278960 60 59 65
-3.389991 4.313326 -0.648221 206 206 204
-4.155777 4.456413 -1.281730 53 52 53
10.298003 4.158595 -0.983312 93 94 90
-3.690333 4.740560 -0.126522 86 88 87
